ply
format ascii 1.0
element vertex 685
property float x
property float y
property float z
property float nx
property float ny
property float nz
property uchar diffuse_red
property uchar diffuse_green
property uchar diffuse_blue
end_header
-0.458984 0.393256 0.761399 0.651989 -0.202343 -0.730731 172 175 170
-0.457746 0.39887 0.761404 0.868331 -0.203004 -0.452538 172 175 170
-0.455605 0.403376 0.76014 0.661452 -0.158153 -0.733123 172 175 170
-0.4545 0.411046 0.756862 0.693252 -0.443 -0.568465 168 172 167
-0.455898 0.428336 0.767518 0.978733 -0.204666 -0.0138961 172 175 170
-0.454093 0.436968 0.767518 0.97872 -0.204676 -0.0146712 172 175 170
-0.451149 0.444214 0.765385 0.0314951 -0.0234635 -0.999229 172 175 170
-0.44822 0.448981 0.762898 0.654035 -0.193668 -0.731253 172 175 170
-0.446412 0.453379 0.762869 0.646 -0.281886 -0.709383 173 175 170
-0.448188 0.456852 0.759882 0.641932 -0.284234 -0.712134 168 171 167
-0.446198 0.461346 0.759882 0.323849 -0.053468 -0.944597 169 172 168
-0.443685 0.465799 0.760491 0.511706 -0.0905379 -0.854377 171 174 169
-0.442823 0.470675 0.760491 0.511706 -0.0905379 -0.854377 171 174 169
-0.441958 0.47556 0.760491 0.748628 -0.249938 -0.614075 171 174 169
-0.440328 0.480444 0.760491 0.748619 -0.249954 -0.614078 171 174 169
-0.438695 0.485334 0.760491 0.754571 -0.25397 -0.60508 172 175 170
-0.439337 0.490258 0.760504 0.584214 -0.10499 -0.804781 170 173 168
-0.438452 0.495181 0.760504 0.67657 -0.197098 -0.70951 170 173 168
-0.437584 0.500096 0.760512 0.511743 -0.0905621 -0.854352 170 173 168
-0.436711 0.505028 0.760512 0.51173 -0.0905652 -0.854359 170 173 168
-0.435836 0.509968 0.760512 0.511729 -0.090547 -0.854362 169 173 168
-0.434961 0.514917 0.760512 0.511728 -0.0905534 -0.854362 169 173 168
-0.434084 0.519874 0.760512 0.511728 -0.0905534 -0.854362 169 173 168
-0.433205 0.52484 0.760512 0.511728 -0.0905534 -0.854362 169 172 168
-0.432324 0.529815 0.760512 0.511728 -0.0905534 -0.854362 168 172 168
-0.431442 0.534799 0.760512 0.511728 -0.0905534 -0.854362 168 172 168
-0.430559 0.539792 0.760512 0.511728 -0.0905534 -0.854362 168 172 168
-0.429674 0.544795 0.760512 0.511728 -0.0905534 -0.854362 168 172 168
-0.428787 0.549807 0.760512 0.511728 -0.0905534 -0.854362 168 171 168
-0.427898 0.554828 0.760512 0.511544 -0.090462 -0.854482 168 171 167
-0.427008 0.55986 0.760512 0.511544 -0.0904608 -0.854482 167 171 167
-0.426117 0.564901 0.760512 0.511442 -0.0904618 -0.854543 167 171 167
-0.425223 0.569952 0.760512 0.472278 -0.255029 -0.84375 166 170 166
-0.422528 0.5741 0.760767 0.836197 -0.220146 -0.502305 169 173 168
-0.421084 0.579586 0.760767 0.849773 -0.211921 -0.482675 169 173 168
-0.419688 0.585184 0.760767 0.849257 -0.315138 -0.423616 169 173 168
-0.417658 0.590654 0.760767 0.954397 -0.269525 -0.128382 170 174 169
-0.415547 0.598128 0.760767 0.958745 -0.264835 -0.103304 171 174 169
-0.413406 0.605879 0.760767 0.914 -0.401895 -0.0555403 171 174 169
-0.412131 0.609747 0.753757 0.964509 -0.26149 -0.0366723 166 170 166
-0.409837 0.618209 0.753757 0.943676 -0.183404 -0.27539 167 171 167
-0.4025 0.630892 0.754931 0.794796 -0.217433 -0.566588 171 175 169
-0.404882 0.634221 0.751416 0.732446 -0.171618 -0.65884 166 170 167
-0.403194 0.639321 0.750366 0.677183 -0.419186 -0.604737 166 170 166
-0.401975 0.645601 0.750366 0.861164 -0.167181 -0.480049 164 169 166
-0.563491 -0.132824 0.751465 0.536637 0.484946 -0.690542 190 187 182
-0.561178 -0.129388 0.753923 0.551973 0.206453 -0.8079 175 170 142
-0.563855 -0.125382 0.754154 0.579083 0.383187 -0.719605 154 147 81
-0.562192 -0.121696 0.757012 0.756377 0.181093 -0.628569 148 144 84
-0.563578 -0.116 0.754846 0.0557517 0.287508 -0.956154 140 138 82
-0.559341 -0.110197 0.754631 0.558037 -0.530965 -0.637708 137 135 80
-0.561754 -0.11292 0.759873 0.182067 0.370026 -0.911006 144 141 85
-0.552392 -0.100025 0.750363 0.666533 -0.365817 -0.649547 142 141 93
-0.549813 -0.0953282 0.750363 0.666368 -0.365902 -0.649669 130 129 86
-0.550667 -0.0912642 0.746616 0.627405 -0.452459 -0.633754 127 128 85
-0.547597 -0.0868151 0.746616 0.462869 -0.767362 -0.443743 156 158 132
-0.547608 -0.0868158 0.746607 0.558349 -0.753496 -0.347118 156 158 132
-0.544547 -0.0823786 0.746607 0.605296 -0.417446 -0.677758 158 160 135
-0.545629 -0.0783738 0.743174 0.605464 -0.417635 -0.677492 157 158 130
-0.541105 -0.0735918 0.743174 0.716532 -0.641622 -0.273685 137 137 107
-0.54068 -0.0664078 0.744143 0.97292 0.00714506 -0.23103 141 140 106
-0.540885 -0.0612678 0.742807 0.848743 0.202496 -0.488498 129 128 90
-0.539364 -0.0582586 0.746697 0.503913 0.363341 -0.783617 127 125 88
-0.539133 -0.0494181 0.744024 0.633047 -0.206612 -0.746031 127 127 91
-0.536677 -0.0453229 0.744587 0.496509 -0.181058 -0.848939 124 124 88
-0.534997 -0.0407937 0.744587 0.751757 -0.139039 -0.644615 114 114 78
-0.534097 -0.0359288 0.744587 0.750603 -0.138816 -0.646007 119 119 86
-0.53164 -0.029899 0.7441 0.713895 -0.320637 -0.622532 123 123 91
-0.530224 -0.0251852 0.743401 0.924653 -0.133669 -0.356581 121 122 91
-0.529324 -0.0109716 0.743395 0.564396 -0.78753 -0.247495 118 120 88
-0.529973 0.00340075 0.748951 -0.155234 0.25707 -0.953843 119 121 92
-0.530062 0.024371 0.750016 0.893819 0.442596 -0.0720862 116 118 90
-0.511006 0.0573984 0.740148 0.166139 -0.626393 -0.761597 110 110 82
-0.512957 0.0617909 0.738375 0.254759 -0.262079 -0.930813 116 116 86
-0.527574 0.118046 0.765926 0.508419 -0.840005 -0.189478 117 117 85
-0.523091 0.12996 0.763382 0.608471 -0.682445 -0.405009 119 118 87
-0.518659 0.134095 0.763382 0.599791 -0.642939 -0.47632 120 119 89
-0.513213 0.141827 0.758017 0.0154701 -0.577407 -0.81631 120 119 90
-0.506534 0.144027 0.754841 -0.0297818 -0.791239 -0.610781 118 117 88
-0.495529 0.178062 0.743778 0.703783 0.437464 -0.559746 124 123 94
-0.493992 0.182494 0.747093 0.403672 0.454063 -0.794277 115 114 85
-0.488751 0.192957 0.740373 0.509852 -0.848512 -0.141696 117 115 86
-0.480606 0.199528 0.739009 0.899567 -0.194112 -0.39128 117 115 87
-0.483054 0.197189 0.734541 0.969836 -0.204525 -0.132618 119 117 87
-0.48978 0.222387 0.74813 0.893962 -0.116344 -0.432776 124 122 94
-0.485762 0.225832 0.745036 -0.00969264 -0.285846 -0.958227 126 124 97
-0.486576 0.233239 0.748787 0.836412 0.175739 -0.519163 120 117 91
-0.473609 0.359297 0.760376 0.497264 -0.743049 -0.447891 140 138 125
-0.46913 0.363355 0.759718 0.436829 -0.678282 -0.590858 164 168 163
-0.468896 0.36777 0.755915 0.326208 -0.597555 -0.732473 155 159 157
-0.464669 0.370693 0.755413 0.484843 -0.175628 -0.856786 163 167 163
-0.462209 0.374804 0.755962 -0.302853 -0.0899115 -0.948786 167 171 166
-0.463945 0.378918 0.754137 0.488737 -0.17688 -0.854312 158 162 159
-0.461487 0.383026 0.754692 0.500529 -0.172085 -0.848444 163 167 162
-0.461595 0.390889 0.756862 0.890625 -0.195958 -0.410352 162 166 162
-0.460361 0.3965 0.756862 0.890625 -0.195955 -0.410352 162 167 163
-0.459125 0.402118 0.756862 0.705885 -0.285589 -0.648202 163 167 163
-0.45726 0.406727 0.756862 0.693217 -0.443006 -0.568504 165 169 165
-0.458007 0.410245 0.75321 0.635973 -0.30897 -0.70716 155 159 157
-0.457684 0.41615 0.758998 0.225594 -0.0305865 -0.973741 164 167 164
-0.456893 0.424125 0.759882 0.934879 -0.334612 -0.118471 164 167 163
-0.455105 0.432675 0.759882 0.978721 -0.204672 -0.0146712 163 167 163
-0.4533 0.441306 0.759882 0.943695 -0.201635 -0.262267 163 167 164
-0.451924 0.447746 0.759882 0.660228 -0.24996 -0.708251 163 167 163
-0.453881 0.451124 0.756866 0.899362 -0.406211 -0.161681 151 156 154
-0.450177 0.45236 0.759882 0.641889 -0.284248 -0.712167 166 170 165
-0.451953 0.455833 0.756895 0.69876 -0.171904 -0.694395 152 157 155
-0.450753 0.460709 0.756895 0.761412 -0.215912 -0.611256 153 158 156
-0.449345 0.465674 0.756895 0.772133 -0.246774 -0.585588 154 159 157
-0.446868 0.468873 0.758259 0.287905 -0.0463828 -0.956535 162 167 163
-0.447762 0.470628 0.756895 0.771208 -0.264306 -0.579121 156 161 158
-0.446004 0.473757 0.758259 0.511703 -0.0905283 -0.85438 162 166 162
-0.445139 0.478645 0.758259 0.511702 -0.0905315 -0.85438 161 166 162
-0.444273 0.483541 0.758259 0.511701 -0.0905369 -0.85438 161 165 162
-0.443405 0.488445 0.758259 0.511701 -0.0905369 -0.85438 160 165 161
-0.442536 0.493357 0.758259 0.511745 -0.0905512 -0.854352 160 164 161
-0.441666 0.498277 0.758259 0.511744 -0.0905567 -0.854352 160 164 161
-0.440794 0.503205 0.758259 0.932351 -0.176701 -0.315432 159 164 161
-0.439929 0.508145 0.758254 0.51173 -0.0905652 -0.854359 159 163 160
-0.439067 0.513087 0.758246 0.511728 -0.0905534 -0.854362 158 163 160
-0.43819 0.518044 0.758246 0.511728 -0.0905534 -0.854362 158 163 159
-0.437319 0.523007 0.758242 0.511728 -0.0905534 -0.854362 157 162 159
-0.436453 0.527975 0.758234 0.484295 -0.211992 -0.848833 157 162 159
-0.435571 0.53296 0.758234 0.511746 -0.090458 -0.854361 157 161 158
-0.434689 0.537949 0.758234 0.511286 -0.0905823 -0.854624 156 161 158
-0.433818 0.542948 0.758225 0.511728 -0.0905534 -0.854362 156 161 158
-0.432947 0.547953 0.758217 0.511728 -0.0905534 -0.854362 155 160 158
-0.432058 0.552975 0.758217 0.511728 -0.0905534 -0.854362 155 160 157
-0.431168 0.558002 0.758217 -0.0997468 -0.0177251 -0.994855 155 160 157
-0.430609 0.555982 0.75771 0.323474 -0.214599 -0.921581 156 161 158
-0.430293 0.56304 0.758209 0.511544 -0.0904608 -0.854482 154 159 157
-0.429408 0.568088 0.758204 0.475146 -0.244845 -0.845155 154 159 157
-0.42685 0.5741 0.758347 0.47237 -0.255391 -0.843589 157 162 159
-0.428477 0.57825 0.75618 0.47237 -0.255391 -0.843589 149 154 152
-0.422726 0.582969 0.756391 0.884369 -0.216683 -0.413448 159 164 161
-0.420679 0.588664 0.75619 0.9703 -0.241047 -0.0203275 161 166 162
-0.421291 0.588824 0.756391 0.884369 -0.216683 -0.413448 159 164 162
-0.415394 0.602326 0.753757 0.928206 -0.370839 0.0302063 162 167 164
-0.411848 0.592425 0.74694 0.9125 -0.162521 -0.375408 163 168 164
-0.411253 0.614051 0.746169 0.964831 -0.260825 -0.0327238 153 158 156
-0.4108 0.621933 0.747977 0.744211 -0.142644 -0.652535 153 158 156
-0.409709 0.627077 0.747911 0.672844 -0.0897309 -0.734323 153 158 156
-0.408485 0.632302 0.747911 0.732445 -0.171619 -0.658841 154 158 156
-0.407257 0.637541 0.747911 0.147556 0.00820155 -0.98902 154 159 157
-0.405196 0.642968 0.745506 0.802277 -0.381656 -0.45901 150 155 153
-0.567584 -0.132982 0.748174 0.536554 0.484997 -0.690571 192 188 182
-0.567881 -0.125012 0.751111 0.579146 0.383159 -0.719569 161 154 88
-0.566647 -0.121162 0.754154 -0.0588179 0.166906 -0.984217 136 131 71
-0.563793 -0.110086 0.750644 0.413078 -0.611222 -0.67511 124 122 67
-0.559341 -0.105495 0.751259 0.485186 -0.509606 -0.71056 133 132 82
-0.553678 -0.0957717 0.746456 0.858089 -0.0413703 -0.511832 127 126 78
-0.551744 -0.0872373 0.743174 0.605104 -0.41758 -0.677847 154 156 128
-0.548682 -0.0828 0.743174 0.605176 -0.417573 -0.677787 157 159 134
-0.546699 -0.0743694 0.739749 -0.107237 -0.410518 -0.905525 144 144 114
-0.543508 -0.0688263 0.736858 0.528428 0.446365 -0.722165 147 148 117
-0.542709 -0.0647833 0.739941 0.616107 0.280294 -0.736103 129 127 92
-0.544734 -0.0603334 0.739941 0.616096 0.280297 -0.736111 137 136 99
-0.542079 -0.0562602 0.742807 0.848744 0.202495 -0.488498 128 127 89
-0.543312 -0.051093 0.742807 0.998573 0.0334974 0.0415977 129 128 91
-0.538946 -0.0419049 0.742036 0.57172 -0.212112 -0.792556 123 122 86
-0.535242 -0.0311149 0.740597 0.713895 -0.320637 -0.622532 125 125 91
-0.533124 -0.0263993 0.740597 0.503464 -0.39312 -0.769403 124 124 91
-0.531524 -0.0212808 0.738845 0.761947 0.410151 -0.501212 120 122 91
-0.532169 -0.0159631 0.739285 0.23835 0.458902 -0.85592 127 128 97
-0.533396 -0.0108822 0.739285 0.589947 0.569717 -0.572176 118 120 88
-0.532461 0.0219429 0.746295 0.850214 -0.0349294 -0.525277 118 120 92
-0.524489 0.044255 0.74299 -0.223058 -0.446767 -0.866397 121 122 95
-0.521554 0.0492392 0.740848 -0.0686807 -0.359499 -0.930614 118 118 91
-0.518608 0.0534298 0.739828 0.224292 -0.376419 -0.898889 115 116 88
-0.515662 0.0576205 0.738809 0.254619 -0.261978 -0.93088 112 113 85
-0.517759 0.0617909 0.737061 0.254759 -0.262012 -0.930832 116 116 86
-0.493542 0.0734109 0.714844 -0.236469 -0.60338 -0.761587 121 120 90
-0.486535 0.0756155 0.710922 -0.10803 -0.751044 -0.651354 121 121 90
-0.479634 0.0829916 0.70125 0.686055 -0.0973978 -0.721 120 120 89
-0.478992 0.087512 0.70125 0.685969 -0.0976878 -0.721043 120 119 88
-0.52795 0.125627 0.763382 0.739197 -0.624187 -0.252939 117 117 85
-0.51864 0.144337 0.756139 -0.15227 -0.785076 -0.600391 120 119 89
-0.499113 0.182494 0.74449 0.530478 0.312955 -0.787815 116 115 86
-0.492898 0.214465 0.74382 0.893989 -0.116232 -0.432751 116 113 84
-0.492188 0.219917 0.74382 0.893969 -0.116331 -0.432766 121 118 89
-0.491276 0.225832 0.745092 0.649941 -0.324067 -0.687428 127 125 98
-0.488533 0.230408 0.743699 0.947491 -0.130359 -0.292006 122 119 93
-0.487705 0.236481 0.743676 0.930376 -0.247315 -0.270621 119 116 89
-0.478077 0.358639 0.756507 0.497446 -0.756648 -0.424301 127 121 102
-0.468867 0.37069 0.753038 0.576925 -0.0414652 -0.815744 149 153 152
-0.466406 0.374804 0.753587 0.484848 -0.175611 -0.856787 153 158 156
-0.468144 0.378918 0.75176 0.68417 -0.178814 -0.707062 145 150 149
-0.46567 0.383026 0.752299 0.875906 -0.245936 -0.415095 149 154 153
-0.464143 0.388463 0.752299 0.896471 -0.180065 -0.404867 149 154 153
-0.463009 0.394111 0.752299 0.92967 -0.190355 -0.315403 149 154 153
-0.461739 0.399749 0.752319 0.890626 -0.196994 -0.409852 150 155 153
-0.460501 0.405349 0.752319 0.967624 -0.198813 -0.155492 150 155 154
-0.459043 0.412445 0.752319 0.980395 -0.164782 -0.108039 150 155 154
-0.457757 0.420096 0.752319 0.980342 -0.19415 -0.0351591 150 154 153
-0.456108 0.428423 0.752319 0.97872 -0.204677 -0.0146703 149 155 153
-0.45432 0.436972 0.752319 0.978629 -0.205264 -0.0122887 150 155 153
-0.454075 0.444839 0.754379 0.978652 -0.205076 -0.0135677 150 155 153
-0.456331 0.44877 0.750905 0.832406 -0.523851 -0.180778 144 149 148
-0.453335 0.454705 0.750905 0.874793 -0.44156 -0.199404 145 150 149
-0.452677 0.463937 0.753358 0.761412 -0.215911 -0.611256 145 150 149
-0.451066 0.468954 0.753244 0.791859 -0.202654 -0.576099 146 151 150
-0.449389 0.473938 0.753219 0.775863 -0.276173 -0.567243 147 152 151
-0.448329 0.481734 0.756022 0.511595 -0.090512 -0.854446 149 154 152
-0.447468 0.486635 0.756018 0.657499 -0.119666 -0.743892 149 154 152
-0.446605 0.491544 0.756014 0.511525 -0.0905076 -0.854488 149 154 152
-0.449742 0.494635 0.753633 0.527093 -0.234966 -0.816679 144 149 148
-0.445741 0.496461 0.756011 0.540593 -0.0962937 -0.835755 149 153 152
-0.448962 0.499566 0.753752 0.511837 -0.090646 -0.854287 144 149 148
-0.444876 0.501386 0.756007 0.511842 -0.0906488 -0.854283 148 154 152
-0.444025 0.50632 0.755994 0.511731 -0.0905598 -0.854359 148 153 152
-0.448118 0.504496 0.753735 0.511727 -0.0905383 -0.854364 144 149 148
-0.443171 0.511259 0.755982 0.503788 -0.0496444 -0.8624 148 153 152
-0.442672 0.51632 0.755982 -0.0321076 0.0366745 -0.998811 148 153 151
-0.445766 0.521689 0.756279 0.660841 -0.197092 -0.724185 144 149 149
-0.441437 0.521172 0.75597 0.511748 -0.0904209 -0.854364 148 153 151
-0.440559 0.52614 0.75597 0.299029 0.0877277 -0.950203 148 153 151
-0.443327 0.530918 0.75554 0.528355 -0.0515327 -0.847458 144 150 149
-0.438822 0.536107 0.755953 0.511764 -0.0904378 -0.854353 148 153 151
-0.437939 0.541102 0.755953 0.527701 -0.150732 -0.83595 147 152 151
-0.437103 0.546102 0.755924 0.511735 -0.0905407 -0.854359 147 152 151
-0.436216 0.551115 0.755924 0.425711 -0.117267 -0.897228 147 152 151
-0.438288 0.55548 0.75437 0.425722 -0.117261 -0.897224 144 149 149
-0.435333 0.556147 0.755919 0.424724 -0.230459 -0.875499 147 152 151
-0.437132 0.560327 0.753946 0.465796 -0.289408 -0.836228 144 149 149
-0.432669 0.560327 0.756111 0.405519 -0.14018 -0.903274 148 153 152
-0.435442 0.571373 0.756361 0.245322 -0.5153 -0.821147 145 150 149
-0.431175 0.5741 0.755926 0.245672 -0.515277 -0.821057 148 153 151
-0.432806 0.57825 0.753756 0.495655 -0.206985 -0.843495 145 150 149
-0.430105 0.582404 0.754011 0.547732 -0.273062 -0.790839 147 151 150
-0.414997 0.582781 0.741866 0.957644 -0.187837 -0.218257 153 158 156
-0.414426 0.589674 0.741866 0.947666 -0.07855 -0.309449 152 156 155
-0.413086 0.595864 0.742222 0.87984 -0.243415 -0.408203 152 157 155
-0.413843 0.596442 0.74172 0.590587 -0.233489 -0.772457 150 155 154
-0.411949 0.601148 0.74172 0.662663 -0.266727 -0.69981 152 157 155
-0.411554 0.601211 0.742222 0.819383 -0.234808 -0.522951 152 157 156
-0.413854 0.604648 0.738583 0.662675 -0.266728 -0.699798 146 151 150
-0.410415 0.606609 0.742222 0.796595 -0.167989 -0.580704 152 157 155
-0.410056 0.605853 0.74172 0.662969 -0.266644 -0.699552 153 158 156
-0.412636 0.609885 0.738583 0.76122 -0.176934 -0.62389 146 151 150
-0.413302 0.625175 0.744415 0.732574 -0.171988 -0.658601 147 152 151
-0.410349 0.618346 0.738583 0.964834 -0.260817 -0.0327244 147 152 151
-0.412078 0.630388 0.744415 0.732442 -0.171617 -0.658845 147 152 151
-0.410854 0.635613 0.744415 0.882221 -0.184612 -0.433133 147 152 151
-0.409606 0.641576 0.744415 0.890269 -0.210246 -0.404001 147 152 151
-0.569114 -0.128859 0.74807 0.579084 0.383167 -0.719614 184 180 162
-0.571904 -0.124642 0.74807 0.61801 0.375559 -0.690666 158 151 84
-0.570671 -0.120795 0.751111 0.681945 0.362461 -0.635274 152 146 84
-0.57307 -0.116282 0.751111 0.683365 0.359775 -0.635275 140 135 74
-0.563717 -0.104562 0.747603 0.485004 -0.509781 -0.710559 134 133 83
-0.557908 -0.096066 0.743174 0.577278 -0.407806 -0.707421 132 130 82
-0.554814 -0.0916864 0.743174 0.577271 -0.407805 -0.707427 134 133 87
-0.556061 -0.0873982 0.739936 0.522316 -0.743364 -0.417847 155 157 126
-0.552817 -0.0832215 0.739741 0.483517 -0.411521 -0.772568 154 156 130
-0.549752 -0.0787956 0.739749 0.321734 -0.399893 -0.858238 154 156 129
-0.551632 -0.0744922 0.737039 -0.102754 -0.368282 -0.924018 145 145 114
-0.550478 -0.0688263 0.737683 -0.154975 -0.241572 -0.957928 141 142 111
-0.547996 -0.0576402 0.73693 0.197582 0.715283 -0.670322 132 131 93
-0.544569 -0.047547 0.739485 0.384327 -0.665158 -0.640201 133 133 97
-0.542893 -0.0430177 0.739485 0.571915 -0.211906 -0.79247 126 125 89
-0.543663 -0.0342484 0.73693 0.939435 -0.287043 -0.187266 127 127 93
-0.542018 -0.0375049 0.740629 0.859711 -0.262063 -0.43843 123 124 89
-0.538838 -0.0323293 0.737098 0.605002 0.724716 -0.329786 125 126 92
-0.535849 -0.0217304 0.731656 -0.266937 0.0201792 -0.963503 113 114 82
-0.534162 -0.0188878 0.735404 0.801793 0.0256213 -0.597052 116 117 86
-0.535047 -0.0139696 0.735404 0.83339 0.20124 -0.514746 118 120 88
-0.535534 0.0018234 0.736183 0.866949 0.493116 -0.0723627 120 121 91
-0.534235 0.0144822 0.738855 0.51177 0.506943 -0.693614 121 123 95
-0.533822 0.0187693 0.742293 0.836748 0.253307 -0.485477 120 123 94
-0.535354 0.0238285 0.742293 0.837873 0.252264 -0.484079 110 113 84
-0.540175 0.0368983 0.752095 0.270266 0.450229 -0.851029 119 119 92
-0.542171 0.0325933 0.749183 0.270266 0.450229 -0.851029 114 114 87
-0.527705 0.0492392 0.741302 -0.0478849 -0.608507 -0.792102 116 117 89
-0.533851 0.0466018 0.7437 -0.108653 -0.571448 -0.813414 117 118 90
-0.509866 0.0641314 0.722571 -0.142081 -0.713825 -0.68576 118 117 87
-0.493542 0.0799382 0.709673 -0.237621 -0.608263 -0.757333 119 118 87
-0.486535 0.0809405 0.704782 -0.11182 -0.748739 -0.653366 119 118 87
-0.531052 0.124103 0.758078 0.72489 -0.458003 -0.514557 116 115 84
-0.52704 0.129498 0.758228 0.621781 -0.691664 -0.367409 119 118 88
-0.499677 0.179098 0.739372 0.703783 0.437464 -0.559746 116 115 86
-0.50291 0.184299 0.739372 0.767894 0.546916 -0.3335 116 115 86
-0.495294 0.212006 0.73953 0.893055 -0.150178 -0.424146 115 112 83
-0.493735 0.221072 0.737505 0.512797 -0.847696 -0.135835 117 114 86
-0.490491 0.227577 0.738611 0.947362 -0.130477 -0.29237 123 120 93
-0.489653 0.233663 0.738611 0.947501 -0.130298 -0.292001 118 115 88
-0.482624 0.357845 0.752593 0.577878 -0.303717 -0.757504 125 118 96
-0.478077 0.361598 0.751229 0.331762 -0.786333 -0.521167 146 148 144
-0.458835 0.415982 0.744971 0.603831 -0.796815 0.0217889 144 149 148
-0.450929 0.477257 0.749495 -0.208728 -0.702304 -0.68059 143 148 148
-0.446702 0.514162 0.753752 0.502776 -0.0494889 -0.862999 143 149 148
-0.447245 0.509434 0.753735 0.511495 -0.0905224 -0.854505 144 149 148
-0.442076 0.539257 0.753671 0.598129 -0.0386935 -0.800465 143 148 148
-0.440737 0.544504 0.753574 0.527814 -0.150783 -0.835869 143 149 148
-0.440801 0.551115 0.753748 0.47036 0.137471 -0.871701 143 148 147
-0.439715 0.568643 0.756797 -0.165292 -0.711456 -0.683015 143 148 148
-0.439715 0.572954 0.754092 -0.0524491 -0.406842 -0.911992 143 148 148
-0.435442 0.575678 0.753659 0.119258 -0.667373 -0.735112 143 148 148
-0.434507 0.582488 0.751716 0.791641 -0.145509 -0.593407 143 148 148
-0.417874 0.595347 0.73897 0.610444 -0.239343 -0.755032 145 150 149
-0.415915 0.59355 0.737504 0.395835 -0.325119 -0.858844 145 150 149
-0.415747 0.599944 0.738583 0.662675 -0.266728 -0.699798 145 150 149
-0.416075 0.607924 0.734944 0.645429 -0.170515 -0.744544 144 149 148
-0.414857 0.613162 0.734944 0.761219 -0.176935 -0.62389 143 148 148
-0.415663 0.62848 0.740925 0.648774 -0.148952 -0.746261 143 148 148
-0.414494 0.633571 0.740925 0.648775 -0.148949 -0.746261 143 149 148
-0.412466 0.639062 0.73966 0.724512 -0.198662 -0.660011 144 149 149
-0.573128 -0.128491 0.745036 0.748022 0.33506 -0.572886 181 176 165
-0.575818 -0.12405 0.744889 0.601251 0.371997 -0.707188 159 151 89
-0.574541 -0.120303 0.74807 0.61801 0.375559 -0.690666 161 153 86
-0.577394 -0.115486 0.749641 0.505173 -0.337063 -0.794474 149 143 77
-0.567854 -0.109915 0.744839 0.641478 -0.261094 -0.721343 145 141 80
-0.566111 -0.104618 0.744333 0.683989 -0.617109 -0.38902 137 136 82
-0.563782 -0.0960057 0.74016 0.50663 -0.611583 -0.607694 123 121 64
-0.559044 -0.0919807 0.739892 0.476424 -0.603426 -0.639451 142 140 90
-0.559044 -0.087455 0.735621 0.476425 -0.603424 -0.639452 155 155 113
-0.557303 -0.0832215 0.736934 0.477349 -0.431574 -0.765429 152 153 123
-0.555273 -0.0689836 0.735249 -0.10271 -0.368396 -0.923978 134 134 94
-0.552113 -0.063473 0.7327 0.136183 -0.294364 -0.945941 135 135 96
-0.546618 -0.063473 0.733491 0.0678151 -0.0417208 -0.996825 126 125 89
-0.549164 -0.0588784 0.731695 0.26488 -0.261981 -0.928011 142 142 105
-0.551854 -0.0567822 0.733946 0.435237 0.210877 -0.875271 130 129 93
-0.550187 -0.0531988 0.73693 0.623946 0.307725 -0.718329 127 126 88
-0.548513 -0.0486622 0.73693 0.572604 -0.211244 -0.792149 133 133 98
-0.546837 -0.044133 0.73693 0.572876 -0.212022 -0.791745 139 138 103
-0.545251 -0.0391949 0.73693 0.782725 -0.251349 -0.569356 128 128 92
-0.546805 -0.0356055 0.733181 0.908898 -0.406142 -0.0946173 126 125 90
-0.547609 -0.0294223 0.736621 0.948818 -0.271809 -0.160822 119 118 83
-0.538422 -0.0196548 0.727909 0.898761 -0.334335 -0.283635 119 119 88
-0.536735 -0.0168122 0.731656 0.852286 0.153463 -0.500058 113 115 83
-0.538784 -0.0121249 0.731656 0.754936 0.330049 -0.566692 122 123 91
-0.537122 -0.00111691 0.732394 0.453417 -0.664866 -0.593604 120 121 90
-0.538269 0.00378636 0.732394 0.840486 0.196562 -0.504922 115 116 84
-0.536688 0.00675873 0.736183 0.730423 -0.115492 -0.67316 118 120 89
-0.539423 0.0131739 0.735627 0.284597 0.637745 -0.715742 121 123 95
-0.539423 0.0178397 0.739784 0.272188 0.63944 -0.719048 118 121 92
-0.545481 0.0368983 0.75041 0.334157 0.445525 -0.83057 120 121 94
-0.540175 0.0439937 0.746377 -0.114991 -0.623321 -0.773465 121 121 93
-0.520385 0.0600965 0.72593 0.131623 -0.7379 -0.661951 114 115 85
-0.51435 0.0630401 0.723848 0.699704 -0.493637 -0.516466 118 117 87
-0.534496 0.123115 0.754106 0.876859 0.169389 -0.449917 116 115 84
-0.496883 0.215157 0.735069 0.529855 -0.0759013 -0.844685 115 112 82
-0.494833 0.231438 0.73903 0.778539 -0.518932 -0.352968 115 112 85
-0.490769 0.236903 0.733545 0.998076 0.0598871 0.0160563 115 112 85
-0.486523 0.357186 0.749882 0.482958 -0.218504 -0.847943 122 114 92
-0.482963 0.361818 0.747787 0.331762 -0.786333 -0.521167 147 147 142
-0.467525 0.393036 0.736408 0.96533 -0.259631 -0.0270088 144 149 151
-0.46283 0.39651 0.732486 0.474374 -0.576661 -0.665155 144 148 152
-0.556002 0.549121 0.857679 0.181943 0.112098 -0.976899 145 150 153
-0.550114 0.58937 0.864811 0.370533 0.236965 -0.898083 145 150 154
-0.552662 0.602114 0.865216 0.312708 0.182096 -0.932231 145 150 153
-0.4462 0.572883 0.751964 -0.00314415 -0.0970819 -0.995271 143 148 150
-0.443144 0.578176 0.75196 0.0130945 -0.00844902 -0.999879 142 147 148
-0.444627 0.600643 0.75381 0.612466 -0.617247 -0.493854 143 148 149
-0.441083 0.600905 0.757877 0.347029 -0.740283 -0.575805 142 147 147
-0.440793 0.604447 0.75381 0.254699 -0.36605 -0.895062 143 148 148
-0.430405 0.61175 0.743074 0.395759 -0.560921 -0.727147 142 147 147
-0.579464 -0.133822 0.741037 0.909838 -0.412247 -0.0473959 197 194 190
-0.578768 -0.119364 0.746797 0.550234 0.358123 -0.754315 162 154 87
-0.569841 -0.106369 0.741798 0.640971 -0.260282 -0.722086 138 135 74
-0.573883 -0.101618 0.740381 0.272387 -0.145469 -0.951128 134 133 76
-0.568934 -0.101618 0.741798 0.594418 -0.113404 -0.79612 136 135 77
-0.57123 -0.0972067 0.740466 0.243335 0.142096 -0.959477 122 121 62
-0.563782 -0.0914799 0.735889 0.531944 -0.505713 -0.679183 142 141 85
-0.562095 -0.0689489 0.735995 0.12235 -0.517804 -0.846705 126 126 83
-0.556167 -0.0603056 0.731134 0.269549 -0.6677 -0.693917 149 149 113
-0.555317 -0.0443703 0.734655 0.997324 -0.0615664 0.039432 153 153 119
-0.548479 -0.040882 0.733238 0.782722 -0.251357 -0.569355 134 135 101
-0.549526 -0.0376359 0.728878 0.865599 -0.279219 -0.415663 126 127 92
-0.547838 -0.0324024 0.728878 0.865729 -0.278962 -0.415563 125 123 87
-0.540543 -0.0042638 0.72863 0.533403 0.655957 -0.534043 121 121 89
-0.538693 -0.00406997 0.72863 0.113154 0.495148 -0.861409 121 121 89
-0.53984 0.000833297 0.72863 0.840486 0.196562 -0.504922 119 119 86
-0.540986 0.00573656 0.72863 0.840486 0.196562 -0.504922 115 115 82
-0.539423 0.00872168 0.732394 0.475074 0.517011 -0.712042 115 116 85
-0.543616 0.0122778 0.732178 0.390574 0.555822 -0.733835 114 116 87
-0.544611 0.0165315 0.736555 0.585916 -0.27258 -0.763153 113 116 89
-0.539372 0.0224923 0.733085 0.941878 -0.037448 -0.33386 117 119 91
-0.540013 0.0286701 0.733085 0.683201 0.430995 -0.589474 117 119 90
-0.54713 0.0463137 0.744302 0.351461 -0.784833 -0.510405 118 119 90
-0.540175 0.0500046 0.742154 0.272965 -0.854187 -0.442555 113 114 84
-0.51777 0.0622516 0.719968 0.661526 -0.100956 -0.743096 117 117 88
-0.520428 0.0655836 0.719673 -0.0466 -0.805377 -0.590928 119 118 90
-0.535837 0.124253 0.748108 0.751489 0.543984 -0.37329 117 115 86
-0.494363 0.2245 0.726283 0.828354 0.449682 -0.33409 113 109 81
-0.494833 0.233367 0.730419 0.382575 -0.901566 -0.202029 115 111 83
-0.487855 0.35873 0.749333 0.194123 -0.736656 -0.647807 123 116 94
-0.487855 0.362038 0.744342 0.27908 -0.771678 -0.571513 147 146 142
-0.482963 0.365126 0.742797 0.197404 -0.860267 -0.470077 146 150 153
-0.477392 0.367684 0.740455 -0.0783631 -0.781447 -0.619032 144 149 152
-0.474296 0.37483 0.732861 0.790105 -0.165325 -0.590256 146 150 153
-0.471238 0.376782 0.736408 0.974664 -0.222614 -0.0217428 144 149 151
-0.469383 0.384902 0.736408 0.974666 -0.222608 -0.0217413 144 149 151
-0.466899 0.385569 0.731991 0.947954 -0.3172 0.0276848 144 149 152
-0.466577 0.393303 0.729184 0.616357 -0.291304 -0.731605 145 149 152
-0.466644 0.397053 0.729295 0.474378 -0.576661 -0.665152 145 150 153
-0.46283 0.400289 0.72921 0.921259 -0.3253 -0.213218 145 149 152
-0.558599 0.554082 0.85647 0.388034 0.0327868 -0.921062 146 151 155
-0.558637 0.554082 0.856527 0.363899 0.192368 -0.911357 146 151 155
-0.561462 0.559099 0.855372 0.327011 0.236288 -0.915003 147 152 157
-0.561198 0.559034 0.855254 0.431811 0.228535 -0.872531 147 152 157
-0.460669 0.40641 0.72921 0.921165 -0.279591 -0.270711 144 149 151
-0.562554 0.56989 0.857445 0.391906 0.136222 -0.909864 147 152 158
-0.458868 0.412345 0.72921 0.975613 -0.205509 -0.0771044 144 149 151
-0.560009 0.575183 0.859334 0.567074 -0.0144724 -0.82354 146 152 157
-0.559863 0.580903 0.859334 0.563746 -0.011929 -0.825862 147 152 157
-0.559741 0.586641 0.859334 0.577561 0.00962833 -0.816291 147 152 157
-0.555698 0.583685 0.862137 0.549463 -0.0355855 -0.83476 146 151 155
-0.56043 0.595244 0.85932 0.56236 0.0880983 -0.822186 147 151 156
-0.555721 0.592929 0.862293 0.507891 0.134295 -0.850889 145 150 153
-0.55533 0.58937 0.862137 0.456154 0.0273318 -0.889481 146 151 155
-0.45315 0.416077 0.721919 0.965871 -0.21323 -0.147061 144 148 151
-0.556655 0.598887 0.862293 0.570043 0.038075 -0.820732 146 151 154
-0.559781 0.611862 0.863881 0.770897 0.0103858 -0.636875 147 152 157
-0.447912 0.427357 0.717008 0.235752 -0.674638 -0.699489 144 149 152
-0.559865 0.618063 0.863881 0.794279 -0.0334141 -0.606634 147 152 157
-0.442336 0.43873 0.713216 0.968053 -0.243901 0.0581807 145 149 153
-0.45713 0.550708 0.749265 0.690325 -0.41733 -0.591006 145 149 152
-0.451971 0.573164 0.753828 0.251346 -0.129562 -0.959187 144 149 151
-0.449255 0.578176 0.75188 0.461442 -0.099041 -0.881624 144 149 151
-0.446199 0.583469 0.751875 -0.0213874 -0.0128511 -0.999689 143 149 150
-0.449292 0.595996 0.753988 0.533947 -0.487794 -0.690621 144 149 150
-0.444627 0.603046 0.748181 0.474918 -0.809326 -0.345609 144 149 151
-0.439878 0.605872 0.746497 0.354881 -0.703871 -0.615325 144 149 150
-0.43513 0.60888 0.744757 0.329158 -0.81832 -0.471177 143 148 149
-0.43513 0.611762 0.739752 0.327235 -0.811674 -0.483841 144 149 150
-0.426802 0.624099 0.735483 0.871604 -0.483158 0.0828533 143 148 149
-0.417941 0.640025 0.730725 0.697109 -0.127787 -0.705485 143 148 148
-0.581451 -0.130829 0.736846 0.871647 -0.0948022 -0.480877 196 193 190
-0.580457 -0.127138 0.740459 0.414807 0.476135 -0.775391 195 192 181
-0.58363 -0.122925 0.740459 0.611425 0.460473 -0.643525 161 155 97
-0.582868 -0.119051 0.743955 0.550234 0.358123 -0.754315 172 165 96
-0.584884 -0.114755 0.743159 0.703634 0.102071 -0.703193 163 158 92
-0.573509 -0.108783 0.737192 0.963019 -0.162572 -0.214861 154 149 84
-0.576032 -0.104509 0.736908 0.790607 0.130831 -0.598184 138 135 74
-0.576849 -0.0995727 0.736908 0.787626 0.122281 -0.603898 134 133 74
-0.568175 -0.0912355 0.732267 0.588198 -0.613555 -0.526853 134 133 76
-0.563755 -0.0869571 0.731642 0.541033 -0.516281 -0.66388 147 146 99
-0.560496 -0.0553393 0.732282 0.885952 0.130842 -0.444938 128 129 93
-0.560186 -0.0489815 0.732432 0.676895 -0.535063 -0.505491 142 143 108
-0.551226 -0.0429041 0.728878 0.865519 -0.279195 -0.415844 151 151 118
-0.552254 -0.0396449 0.724546 0.865586 -0.279335 -0.415612 142 142 109
-0.550566 -0.0344115 0.724546 0.879156 -0.196261 -0.434242 124 124 88
-0.549417 -0.0292631 0.724546 0.93125 -0.363898 -0.0187559 125 123 88
-0.546758 -0.0224593 0.724546 0.93132 -0.36375 -0.018137 124 122 87
-0.544124 -0.0157148 0.724546 0.987785 -0.147908 0.0490248 124 123 92
-0.543063 -0.00862519 0.724546 0.986491 -0.152212 0.0605531 127 125 95
-0.541959 -0.00147136 0.724546 0.907729 -0.125254 -0.400424 120 120 87
-0.54713 0.0501725 0.73754 0.306371 -0.826752 -0.471824 115 116 87
-0.534651 0.0604687 0.726332 -0.0362166 -0.751159 -0.659127 117 118 88
-0.527469 0.0630101 0.723041 -0.0344634 -0.754397 -0.655513 116 116 87
-0.527513 0.0630186 0.723015 -0.0382102 -0.750896 -0.659314 116 116 87
-0.509748 0.153784 0.723001 0.983881 -0.173077 -0.0449759 117 116 86
-0.497656 0.215177 0.721615 0.93279 0.0333603 -0.358872 114 110 82
-0.497865 0.221013 0.721615 0.93279 0.0333605 -0.358872 113 109 81
-0.498073 0.226848 0.721615 0.928998 0.0306525 -0.368813 119 115 86
-0.496318 0.229807 0.726283 0.792418 0.291871 -0.535617 114 111 82
-0.492765 0.359134 0.745865 0.265178 -0.76432 -0.587789 121 113 90
-0.492765 0.362648 0.74112 0.601148 -0.37169 -0.707437 145 145 143
-0.49022 0.366764 0.74112 0.513244 -0.312662 -0.799264 148 152 156
-0.482963 0.368272 0.737039 0.197367 -0.860267 -0.470092 148 151 155
-0.477758 0.373987 0.729381 0.694093 -0.411449 -0.590716 148 151 155
-0.475218 0.378271 0.729381 0.694117 -0.411547 -0.590619 147 151 154
-0.472667 0.380408 0.729184 0.616461 -0.291084 -0.731605 146 150 154
-0.470637 0.384706 0.729184 0.616442 -0.291142 -0.731598 146 150 153
-0.468607 0.389004 0.729184 0.616413 -0.291129 -0.731628 145 150 153
-0.470457 0.397597 0.726104 0.391594 -0.720014 -0.572917 147 151 155
-0.466644 0.400833 0.726018 0.474274 -0.576638 -0.665247 146 150 153
-0.462839 0.404061 0.725933 0.474269 -0.576637 -0.665251 145 150 153
-0.462839 0.407828 0.722668 -0.0339636 -0.395931 -0.917652 146 150 153
-0.460139 0.412236 0.720666 0.258269 -0.414955 -0.872416 145 150 153
-0.457305 0.416077 0.719678 0.448189 -0.328795 -0.831276 145 150 153
-0.454589 0.419938 0.719615 0.320949 -0.434219 -0.841692 145 149 152
-0.45369 0.419938 0.718018 0.409111 -0.690125 -0.596955 145 149 152
-0.451701 0.423686 0.718783 0.447346 -0.458848 -0.767685 145 149 152
-0.452807 0.427357 0.715944 0.185281 -0.488573 -0.852624 145 150 153
-0.449909 0.431143 0.714405 0.273133 -0.69914 -0.660759 145 150 152
-0.444914 0.436591 0.708616 0.885452 -0.295581 -0.358618 145 149 152
-0.440568 0.440788 0.708252 0.333789 -0.733166 -0.592497 144 149 151
-0.462023 0.540282 0.750159 0.611198 -0.335835 -0.716695 145 149 153
-0.461968 0.543694 0.745265 0.820639 -0.47307 -0.320558 146 149 153
-0.458779 0.545529 0.749259 0.809323 -0.257165 -0.528075 145 149 152
-0.460324 0.548869 0.745265 0.809327 -0.257147 -0.528077 146 149 154
-0.458677 0.554053 0.745265 0.809331 -0.257139 -0.528075 146 149 154
-0.453827 0.578176 0.749486 0.461447 -0.0990279 -0.881623 145 149 152
-0.456814 0.584096 0.747093 0.786832 -0.224573 -0.574859 145 149 153
-0.457839 0.593396 0.751685 0.376471 -0.692893 -0.614954 145 149 152
-0.453562 0.596465 0.750845 0.376465 -0.692892 -0.614959 144 149 152
-0.449292 0.599529 0.750007 0.376459 -0.692891 -0.614964 144 149 151
-0.449401 0.602694 0.744433 0.662816 -0.0508007 -0.747057 145 149 152
-0.444627 0.605989 0.743209 0.314533 -0.816865 -0.483529 144 149 151
-0.439853 0.608894 0.741433 0.329184 -0.818327 -0.471146 144 149 151
-0.439853 0.611646 0.736254 0.341084 -0.833101 -0.435437 144 149 152
-0.434436 0.619052 0.732485 0.252207 -0.959796 -0.123225 144 149 152
-0.429821 0.622543 0.730613 0.481807 -0.812685 -0.327725 144 149 151
-0.423967 0.627838 0.727466 0.611865 -0.173803 -0.77163 144 149 151
-0.422569 0.632761 0.727466 0.697129 -0.127559 -0.705506 144 149 150
-0.421613 0.637985 0.727466 0.700016 -0.130746 -0.702056 144 149 150
-0.420635 0.643218 0.727466 0.944105 -0.184544 -0.273147 144 149 151
-0.58439 -0.126795 0.736968 0.460302 0.359841 -0.811565 195 192 187
-0.587559 -0.122587 0.736968 0.611425 0.460473 -0.643525 164 159 117
-0.586606 -0.118458 0.740416 0.568213 0.30254 -0.765247 172 165 94
-0.578232 -0.108783 0.735642 0.309608 0.120122 -0.943246 152 147 82
-0.579308 -0.102397 0.735605 0.600743 0.196469 -0.774925 138 135 75
-0.579812 -0.0975069 0.733463 0.787014 0.122964 -0.604557 150 148 88
-0.577615 -0.0946401 0.736908 0.787623 0.122523 -0.603852 126 125 68
-0.562212 -0.0716769 0.724928 0.766324 -0.231532 -0.599283 133 133 89
-0.563471 -0.0658577 0.724567 0.756142 0.0722405 -0.650408 125 126 79
-0.562095 -0.0581985 0.728257 0.885952 0.130843 -0.444937 146 146 110
-0.562853 -0.0530645 0.728257 0.771757 -0.0517566 -0.633808 133 133 98
-0.553973 -0.0449262 0.724518 0.865519 -0.279195 -0.415844 139 140 107
-0.544354 -0.0193047 0.718346 0.985751 0.125983 -0.111463 125 123 90
-0.543292 -0.0122151 0.718346 0.997506 0.030838 0.0634831 126 125 95
-0.544078 -0.00377601 0.720463 0.941939 -0.137304 -0.306429 122 122 89
-0.543375 0.00132109 0.720463 0.837527 -0.288491 -0.464028 120 120 87
-0.541701 0.00618048 0.720463 0.787773 -0.512371 -0.341891 117 117 84
-0.553548 0.0464491 0.739897 0.272292 -0.85471 -0.441959 120 120 92
-0.54713 0.0540313 0.730779 0.316139 -0.778562 -0.542123 118 119 91
-0.541287 0.0576608 0.728973 0.0554273 -0.750449 -0.6586 119 119 90
-0.534651 0.0659427 0.720094 -0.0376357 -0.750727 -0.659539 122 122 94
-0.527513 0.0684531 0.716825 -0.0389354 -0.750908 -0.659259 122 122 94
-0.529425 0.084887 0.718629 0.887501 -0.125505 -0.443385 121 122 89
-0.523454 0.108207 0.717984 0.583802 -0.798135 -0.148851 118 117 84
-0.513225 0.13495 0.715707 0.212446 0.401249 -0.890992 120 119 89
-0.511108 0.151016 0.71795 0.971131 -0.167741 -0.169607 118 117 86
-0.510101 0.156848 0.71795 0.971087 -0.167705 -0.169899 121 120 91
-0.499574 0.21803 0.716895 0.932958 0.033522 -0.358421 120 116 88
-0.499783 0.223866 0.716895 0.962294 0.185182 -0.199244 128 124 96
-0.50002 0.229685 0.716947 0.956531 0.272542 -0.103774 125 122 93
-0.500441 0.233897 0.724124 0.961548 -0.124193 -0.244951 130 127 98
-0.494934 0.357169 0.738159 0.555035 0.181026 -0.81189 120 112 89
-0.496558 0.36215 0.738159 0.555017 0.180994 -0.81191 142 142 136
-0.494014 0.366265 0.738159 0.601148 -0.37169 -0.707437 149 154 159
-0.491472 0.370375 0.738159 0.639991 -0.421607 -0.642386 147 152 157
-0.482963 0.3714 0.731314 0.193035 -0.806401 -0.558976 148 152 157
-0.477771 0.37747 0.724351 0.19303 -0.8064 -0.55898 148 152 157
-0.474375 0.383843 0.726378 0.616441 -0.291147 -0.731597 148 151 155
-0.474792 0.39446 0.727084 0.391594 -0.720014 -0.572917 148 152 156
-0.470449 0.401376 0.722835 0.474322 -0.576286 -0.665518 148 152 156
-0.466644 0.404604 0.72275 0.20737 -0.500272 -0.84067 147 151 154
-0.465679 0.412236 0.720871 0.0357364 -0.196142 -0.979924 147 151 155
-0.461979 0.416077 0.718295 -0.0691282 -0.452597 -0.889032 147 151 155
-0.465645 0.421227 0.719231 0.290729 -0.315332 -0.90335 148 151 155
-0.458745 0.419938 0.717375 0.117102 -0.371774 -0.920908 147 151 154
-0.461066 0.424035 0.715426 -0.109404 -0.159007 -0.981197 147 151 155
-0.458827 0.428347 0.713651 0.333303 -0.458044 -0.824078 147 151 155
-0.454805 0.431143 0.713341 0.323527 -0.550672 -0.769475 146 151 154
-0.449909 0.43477 0.710567 0.0354702 -0.616263 -0.786741 146 150 153
-0.449909 0.43911 0.707167 -0.0621343 -0.587181 -0.807067 147 151 154
-0.444914 0.441264 0.705215 0.333806 -0.733176 -0.592475 146 150 153
-0.440568 0.444134 0.704112 0.628818 -0.617802 -0.472132 145 149 152
-0.44026 0.447512 0.700104 0.113043 -0.736854 -0.666534 146 150 153
-0.435452 0.449791 0.698399 -1.3113e-006 -0.733301 -0.679904 145 149 152
-0.427589 0.45924 0.693086 0.117327 -0.899159 -0.421602 146 150 154
-0.464948 0.538525 0.745265 0.968556 -0.248132 0.0181315 146 149 154
-0.464893 0.541937 0.740371 0.467414 -0.520311 -0.714704 147 150 154
-0.423537 0.465581 0.688791 0.387037 -0.670164 -0.633311 146 150 154
-0.462194 0.565336 0.747093 0.986164 -0.157131 -0.0528285 146 149 153
-0.459988 0.572255 0.747093 0.941963 -0.300421 -0.149841 145 149 153
-0.458401 0.578176 0.747093 0.900056 -0.241259 -0.362895 145 149 153
-0.461055 0.575714 0.742146 0.440856 -0.155613 -0.883986 147 150 155
-0.459468 0.581635 0.742146 0.775909 -0.173713 -0.606456 147 150 155
-0.413944 0.482997 0.68053 0.450723 -0.172688 -0.875801 145 149 152
-0.457839 0.596934 0.747698 0.971579 -0.174238 -0.160235 146 149 153
-0.453987 0.602978 0.741247 0.444175 -0.828703 -0.340528 146 150 154
-0.449401 0.605835 0.739807 0.321169 -0.783493 -0.531967 145 149 153
-0.444627 0.60874 0.73803 0.341064 -0.83016 -0.441032 145 149 152
-0.444627 0.611492 0.732852 0.340969 -0.757251 -0.557055 146 149 153
-0.441107 0.616821 0.736211 0.166124 -0.985754 -0.026305 144 149 152
-0.434436 0.620066 0.72459 0.24283 -0.96137 -0.129617 145 149 152
-0.432142 0.628282 0.727581 0.166541 -0.985833 -0.019928 144 150 151
-0.426558 0.631234 0.724647 0.377893 -0.90575 -0.19187 144 149 151
-0.424306 0.641196 0.724183 0.700053 -0.130756 -0.702018 144 149 151
-0.588319 -0.126457 0.733476 0.61144 0.460452 -0.643525 190 187 183
-0.590577 -0.118202 0.736968 0.598042 0.462667 -0.654435 158 151 79
-0.593684 -0.113838 0.736964 0.995271 -0.088812 0.0393463 149 143 77
-0.582966 -0.108783 0.734089 0.30944 0.120149 -0.943298 149 144 80
-0.584277 -0.104035 0.734089 0.73427 0.202798 -0.647859 138 134 71
-0.583451 -0.102397 0.733223 0.497906 0.0461354 -0.866003 138 134 73
-0.585619 -0.09826 0.732197 0.741698 0.0184825 -0.67048 140 138 77
-0.565497 -0.0733447 0.721379 0.765831 -0.234813 -0.598637 141 142 99
-0.565957 -0.0685288 0.721379 0.756136 0.0722523 -0.650414 128 129 84
-0.566414 -0.0637086 0.721384 0.756091 0.0721776 -0.650474 130 130 87
-0.563694 -0.0610577 0.724232 0.689475 0.0675053 -0.721157 149 149 111
-0.564453 -0.0559237 0.724232 0.885803 0.131332 -0.445091 136 135 104
-0.565375 -0.0504382 0.724972 0.462045 -0.728675 -0.505517 142 141 111
-0.542785 -0.0158027 0.71212 0.845033 0.234489 -0.480556 125 124 93
-0.543927 0.00422982 0.716053 0.478911 0.155414 -0.863997 116 117 85
-0.546291 0.00825487 0.715466 0.407803 -0.389491 -0.825829 116 116 85
-0.529738 0.0785061 0.713931 0.559462 -0.0544712 -0.827064 126 126 99
-0.528568 0.0971526 0.715212 0.521376 -0.807396 -0.276186 116 115 81
-0.527005 0.101437 0.714868 0.644251 -0.365072 -0.672059 117 116 82
-0.526429 0.106168 0.714868 0.749349 -0.0911686 -0.655869 118 117 82
-0.525564 0.111016 0.715053 0.478331 -0.854516 -0.202488 118 117 82
-0.521971 0.138194 0.719314 0.287319 -0.736496 -0.61239 121 120 90
-0.511461 0.15408 0.712899 0.981469 -0.17165 -0.0851775 124 123 93
-0.510548 0.159474 0.712043 0.983139 -0.182397 -0.0130076 126 125 96
-0.501323 0.215289 0.712196 0.92203 0.0379353 -0.385255 123 119 90
-0.501481 0.22087 0.712196 0.913774 0.0259458 -0.405392 122 118 90
-0.50112 0.230816 0.716895 0.959265 0.240691 -0.147911 121 118 89
-0.499903 0.341449 0.729551 0.392341 0.358398 -0.847124 116 107 79
-0.497616 0.353547 0.735517 0.586276 -0.109623 -0.80266 120 113 91
-0.500661 0.349807 0.732859 0.609097 0.175869 -0.77335 118 111 87
-0.499248 0.358517 0.73551 0.60491 0.145218 -0.78294 121 113 92
-0.500872 0.363498 0.73551 0.555252 0.18097 -0.811754 147 149 149
-0.497802 0.365767 0.735201 0.446977 -0.593772 -0.669064 150 155 160
-0.495261 0.369877 0.735201 0.609261 -0.566626 -0.55474 150 154 160
-0.488168 0.372304 0.728214 0.0955387 -0.544411 -0.83336 150 154 160
-0.482963 0.37489 0.72628 0.193025 -0.806399 -0.558983 149 153 158
-0.482963 0.378371 0.721258 0.689033 -0.643657 -0.333077 150 154 160
-0.480807 0.390351 0.724731 0.835078 -0.460139 -0.301526 149 153 159
-0.478288 0.38233 0.71906 0.712505 -0.217319 -0.667165 148 152 158
-0.474249 0.397784 0.722334 0.314992 -0.515738 -0.79674 148 152 157
-0.478298 0.399121 0.719866 0.874315 -0.390851 -0.287765 150 154 159
-0.474249 0.40192 0.719656 0.315168 -0.515769 -0.79665 149 153 158
-0.474249 0.406055 0.716979 0.0372176 -0.405766 -0.913219 149 153 159
-0.471048 0.412236 0.720675 0.0357364 -0.196142 -0.979924 148 152 157
-0.46833 0.416798 0.719861 0.0980988 -0.198399 -0.9752 148 152 156
-0.463284 0.428347 0.711848 0.238698 -0.73849 -0.6306 149 152 157
-0.454805 0.435133 0.710485 0.419566 -0.42204 -0.803646 147 151 155
-0.454681 0.436836 0.708734 -0.0206914 -0.422309 -0.906216 147 151 155
-0.459 0.435133 0.708295 0.38661 -0.500321 -0.774733 149 152 156
-0.454905 0.44163 0.705718 -0.0510954 -0.795286 -0.604077 149 152 156
-0.444914 0.44461 0.701075 0.333807 -0.733176 -0.592474 147 151 154
-0.444914 0.447945 0.696949 0.407365 -0.760977 -0.504944 148 151 155
-0.44026 0.45126 0.69596 0.272268 -0.700307 -0.659879 147 151 154
-0.435818 0.457246 0.691021 0.27665 -0.644165 -0.713103 147 151 154
-0.43165 0.459908 0.690233 0.350679 -0.668539 -0.655804 146 150 153
-0.427589 0.462747 0.689511 0.350898 -0.668498 -0.655729 145 150 153
-0.427619 0.466228 0.685993 0.398164 -0.632194 -0.664677 146 151 154
-0.422139 0.46977 0.682685 0.00882557 -0.0814763 -0.996636 146 150 153
-0.463265 0.561129 0.739616 0.603701 -0.220221 -0.76619 147 150 155
-0.419401 0.47449 0.682324 -0.0215092 -0.119599 -0.992589 145 150 152
-0.461905 0.569667 0.739616 0.566334 -0.0583287 -0.822109 147 150 155
-0.416664 0.479219 0.681695 0.198748 -0.416609 -0.887094 145 149 151
-0.418627 0.482997 0.67948 0.410326 -0.276631 -0.86897 146 150 153
-0.416045 0.486873 0.679466 0.250051 -0.142053 -0.957755 145 150 153
-0.416042 0.486873 0.679467 0.294725 -0.172441 -0.939894 145 150 153
-0.413528 0.491064 0.679501 0.100233 0.0119626 -0.994892 145 149 152
-0.410763 0.496933 0.675224 -0.187347 -0.134405 -0.973055 145 150 152
-0.453987 0.605319 0.73555 0.182514 -0.753442 -0.631675 147 150 155
-0.449401 0.608586 0.734628 0.336112 -0.828709 -0.447515 146 150 155
-0.404938 0.508084 0.671772 0.0939734 -0.451147 -0.887488 146 150 154
-0.444627 0.614719 0.728464 0.506647 -0.597705 -0.621335 146 150 154
-0.401687 0.516087 0.669677 0.259307 -0.549108 -0.794506 146 150 154
-0.44073 0.618022 0.728464 0.506647 -0.597705 -0.621335 146 149 153
-0.44056 0.621766 0.725002 0.506635 -0.597702 -0.621348 146 150 154
-0.397283 0.522449 0.665766 0.449361 -0.591658 -0.66934 146 150 154
-0.432142 0.629726 0.720767 0.093995 -0.994315 -0.0500322 145 149 153
-0.426558 0.632677 0.717833 0.103743 -0.992968 -0.0570274 145 150 152
-0.426999 0.644406 0.720899 0.700826 -0.130901 -0.701218 146 150 154
-0.592036 -0.125746 0.729555 0.577598 0.378229 -0.723411 199 196 193
-0.59135 -0.121965 0.733283 0.658443 0.453188 -0.600893 178 173 146
-0.594464 -0.11761 0.733283 0.656912 0.45261 -0.603001 153 145 78
-0.586286 -0.107145 0.730839 0.73427 0.202799 -0.647859 151 145 81
-0.587597 -0.102397 0.730839 0.497906 0.046136 -0.866003 140 135 73
-0.589765 -0.09826 0.729813 0.542271 0.0696795 -0.83731 141 138 78
-0.570749 -0.0792788 0.717902 0.687935 -0.343722 -0.63922 141 142 92
-0.56844 -0.071196 0.718197 0.525428 0.504542 -0.6851 148 148 106
-0.572206 -0.0664677 0.722151 0.446496 -0.0587958 -0.892852 142 142 102
-0.576254 -0.0590938 0.724228 0.751322 0.206231 -0.626884 148 147 117
-0.574087 -0.0561428 0.727478 0.769842 0.186716 -0.610312 130 129 101
-0.575085 -0.0513504 0.727478 0.750385 0.156576 -0.642189 138 137 109
-0.576515 -0.0456443 0.72806 0.300951 0.766225 -0.567739 140 140 108
-0.576476 -0.0330839 0.733875 0.242337 0.872377 -0.424536 127 127 93
-0.539892 0.0713785 0.716565 0.667566 -0.734412 -0.122453 132 133 106
-0.533241 0.0765359 0.711692 0.559462 -0.0544696 -0.827064 128 129 102
-0.532795 0.081115 0.711692 0.559448 -0.0545576 -0.827068 120 119 90
-0.532349 0.085694 0.711692 0.559492 -0.0542853 -0.827056 117 114 77
-0.531904 0.0902735 0.711692 0.816633 -0.105669 -0.567402 117 114 76
-0.53129 0.0950164 0.711692 0.816632 -0.10567 -0.567402 117 114 76
-0.530657 0.0999114 0.711692 0.751476 -0.187756 -0.63248 116 114 76
-0.529511 0.104497 0.711692 0.752384 -0.187154 -0.631579 117 116 78
-0.528369 0.109088 0.711692 0.798579 -0.142871 -0.584687 117 116 79
-0.527527 0.113798 0.711692 0.795629 -0.326861 -0.510036 119 118 80
-0.530797 0.119373 0.714795 0.619616 0.320189 -0.716628 119 118 82
-0.52884 0.123031 0.717585 0.584892 0.270333 -0.764736 120 119 88
-0.503362 0.346242 0.729921 0.403262 0.356039 -0.842981 111 104 75
-0.50211 0.354829 0.732859 0.609094 0.175835 -0.773361 115 106 85
-0.503564 0.359864 0.732859 0.609223 0.175809 -0.773265 124 117 103
-0.505188 0.364848 0.732859 0.497815 0.143297 -0.855363 154 156 161
-0.503268 0.36927 0.734718 0.497858 0.144027 -0.855216 153 156 163
-0.497516 0.371809 0.727466 -0.198865 -0.675397 -0.710134 150 154 162
-0.492837 0.374326 0.726358 0.0954808 -0.544385 -0.833384 148 154 159
-0.488155 0.375791 0.723187 0.19303 -0.806399 -0.558982 148 153 159
-0.486224 0.377376 0.716435 0.575664 -0.330491 -0.747922 148 154 159
-0.482192 0.381692 0.716435 0.565757 -0.295712 -0.769723 150 155 160
